ply
format ascii 1.0
element vertex 512
property float x
property float y
property float z
end_header
-0.231639638543128967 0.668641448020935059 -0.706584572792053223
0.826341807842254639 -0.118391990661621094 0.550583779811859131
0.277581453323364258 -0.726811587810516357 0.628246307373046875
-0.850372374057769775 0.227126717567443848 -0.474636971950531006
0.478818595409393311 -0.777237772941589355 -0.408208519220352173
-0.598608195781707764 0.685430049896240234 0.414552599191665649
-0.43837854266166687 -0.895219087600708008 -0.0800442546606063843
-0.842523753643035889 -0.265037447214126587 0.468944400548934937
0.108362190425395966 -0.296299010515213013 -0.948928117752075195
0.767394125461578369 0.436710357666015625 -0.469457447528839111
0.57166677713394165 0.812448084354400635 0.114565245807170868
0.0102491909638047218 0.337862879037857056 0.941139519214630127
0.924853801727294922 0.37701752781867981 0.0500322990119457245
-0.901468396186828613 -0.411202549934387207 -0.135156348347663879
-0.103449925780296326 -0.796971678733825684 -0.595091819763183594
0.437059998512268066 0.797878026962280273 -0.415173649787902832
0.640108227729797363 -0.297133326530456543 -0.708500683307647705
-0.522422552108764648 0.0805565044283866882 -0.848872959613800049
0.277250885963439941 -0.29713776707649231 0.913696408271789551
-0.644813776016235352 0.691004037857055664 -0.32669338583946228
-0.393404543399810791 -0.725323259830474854 0.564923942089080811
0.702884376049041748 -0.657954096794128418 0.270277589559555054
-0.619484782218933105 0.274176895618438721 0.735571622848510742
-0.122397974133491516 0.864806950092315674 0.486957579851150513
0.221699491143226624 -0.240106657147407532 -0.945091605186462402
0.765982270240783691 0.318649530410766602 0.558331072330474854
0.236509978771209717 0.192536443471908569 0.952361643314361572
0.689259588718414307 0.538526654243469238 0.484675437211990356
-0.418498098850250244 -0.907487571239471436 0.036409575492143631
-0.406911522150039673 0.840631186962127686 0.357438325881958008
0.977022290229797363 -0.165614575147628784 0.134161278605461121
-0.460658401250839233 -0.844768047332763672 0.27232477068901062
0.640099167823791504 -0.387729614973068237 -0.663278818130493164
0.789833307266235352 -0.504889786243438721 -0.348209172487258911
-0.923215210437774658 -0.384277224540710449 -0.00216628890484571457
-0.11004483699798584 0.871232211589813232 -0.478377014398574829
-0.608131110668182373 -0.584791898727416992 0.536837995052337646
0.772276818752288818 -0.61309438943862915 -0.166444525122642517
-0.08263358473777771 -0.0418713018298149109 0.99570000171661377
0.261194616556167603 -0.122778803110122681 -0.957445919513702393
0.198520258069038391 0.960996031761169434 0.192552044987678528
-0.834780693054199219 0.405851513147354126 -0.372056066989898682
-0.205705404281616211 0.853264451026916504 -0.479192107915878296
-0.237710893154144287 -0.371664315462112427 -0.897418022155761719
0.121380485594272614 -0.95788121223449707 -0.260250627994537354
-0.831149756908416748 -0.221705794334411621 -0.509937822818756104
-0.889420568943023682 0.165078878402709961 0.426239341497421265
-0.0657797902822494507 -0.98189312219619751 -0.177648335695266724
-0.161239594221115112 0.934618651866912842 0.317001134157180786
0.241600781679153442 0.625066578388214111 -0.742240369319915771
-0.64586108922958374 0.09336109459400177 0.757725000381469727
-0.128055602312088013 -0.519778192043304443 0.844649255275726318
0.441794306039810181 0.87696385383605957 -0.189082592725753784
0.362809568643569946 0.142164900898933411 0.920955121517181396
0.384614527225494385 -0.769837379455566406 0.509334921836853027
0.503815293312072754 0.790410280227661133 0.348456233739852905
-0.875711023807525635 0.482176303863525391 0.0252240635454654694
0.787211358547210693 0.361413478851318359 -0.499678432941436768
0.344564378261566162 -0.770782828330993652 0.535881698131561279
0.94142228364944458 -0.152819931507110596 0.300616234540939331
-0.176572531461715698 0.0896020308136940002 -0.980200827121734619
-0.868029415607452393 0.469647198915481567 -0.16111011803150177
-0.867630481719970703 -0.254322290420532227 -0.427244126796722412
-0.432579725980758667 -0.677075445652008057 -0.595351636409759521
-0.557168245315551758 0.732129275798797607 0.391854941844940186
0.815168857574462891 0.350735872983932495 -0.460959970951080322
0.962988674640655518 0.208737656474113464 -0.170532539486885071
-0.412309080362319946 -0.338990300893783569 0.845628023147583008
0.281451553106307983 -0.927031099796295166 0.247787013649940491
-0.512440145015716553 -0.32680058479309082 -0.794107377529144287
0.243229508399963379 0.255476623773574829 0.935719549655914307
0.823668360710144043 -0.323681056499481201 0.46561896800994873
0.279410660266876221 0.375024288892745972 -0.883904099464416504
0.333083570003509521 0.401481121778488159 -0.853151917457580566
-0.970041990280151367 -0.24205373227596283 -0.020700547844171524
-0.162827298045158386 0.926002323627471924 -0.340598016977310181
-0.571848154067993164 0.450055688619613647 -0.685885965824127197
-0.444667130708694458 0.312009990215301514 -0.839595675468444824
-0.00851980876177549362 0.438583850860595703 0.898649871349334717
0.836623311042785645 -0.545045435428619385 0.0546523034572601318
0.63795393705368042 0.551889955997467041 0.537058889865875244
0.804629862308502197 -0.135359436273574829 -0.578142404556274414
-0.701254844665527344 -0.0117347156628966331 0.712814092636108398
0.221835300326347351 -0.96222984790802002 -0.157806292176246643
0.683043181896209717 0.546818137168884277 0.484192103147506714
-0.330594718456268311 -0.00679169083014130592 0.943748354911804199
-0.677268564701080322 0.180980801582336426 0.713129162788391113
0.0522902049124240875 -0.916501760482788086 -0.396598279476165771
-0.366480261087417603 0.304130077362060547 -0.879316270351409912
-0.181621953845024109 -0.503885924816131592 0.844459831714630127
-0.409745097160339355 -0.331090450286865234 -0.849992990493774414
0.684774160385131836 -0.341092407703399658 -0.644003391265869141
-0.933058321475982666 0.286883234977722168 0.217025727033615112
-0.352598845958709717 0.832352399826049805 -0.427625417709350586
0.429407805204391479 -0.268495887517929077 0.862275421619415283
-0.867305755615234375 -0.490185052156448364 -0.0865988433361053467
0.395012944936752319 -0.876344203948974609 -0.27565494179725647
0.272599309682846069 0.93319326639175415 -0.234179198741912842
0.623000085353851318 0.100991666316986084 -0.775674939155578613
-0.287748873233795166 -0.613359332084655762 -0.735520839691162109
0.121507838368415833 -0.8533896803855896 -0.506914079189300537
-0.654442250728607178 0.696318328380584717 0.294696599245071411
0.0165231693536043167 0.690438270568847656 0.72320258617401123
0.906691670417785645 0.16322694718837738 -0.388930827379226685
-0.951611340045928955 0.0737902596592903137 0.298313319683074951
0.0794696211814880371 0.948927342891693115 0.305321842432022095
-0.607374906539916992 0.421471267938613892 0.673392653465270996
-0.538285970687866211 -0.685985922813415527 -0.489562541246414185
-0.408614397048950195 -0.714693665504455566 0.567668259143829346
0.457672178745269775 -0.579709768295288086 0.674145936965942383
-0.726146697998046875 -0.430497944355010986 0.536080658435821533
0.358647912740707397 -0.788582265377044678 0.499509453773498535
0.930283844470977783 0.352697521448135376 -0.100878313183784485
0.126806631684303284 0.633244991302490234 0.76349252462387085
-0.745704531669616699 0.0541864410042762756 -0.664069712162017822
-0.713414371013641357 -0.65346229076385498 -0.253035515546798706
0.0231382511556148529 -0.94820481538772583 0.316815733909606934
-0.928589701652526855 0.326150238513946533 0.177051365375518799
0.8864288330078125 -0.305993765592575073 0.3472919762134552
-0.569468319416046143 -0.819730520248413086 0.0612184517085552216
-0.951861262321472168 -0.26646849513053894 0.151507928967475891
-0.492673873901367188 -0.566144883632659912 -0.660872459411621094
0.854185521602630615 -0.253579884767532349 0.453943133354187012
0.666590452194213867 -0.566807985305786133 -0.484134167432785034
0.49774208664894104 0.864881157875061035 0.0650642961263656616
0.118420042097568512 -0.346585959196090698 -0.930513203144073486
0.996930837631225586 -0.0427187494933605194 -0.0656046122312545776
-0.096385173499584198 0.991734921932220459 -0.0846864357590675354
0.280100256204605103 0.0759650766849517822 -0.956960380077362061
0.0446310564875602722 0.00130912696477025747 -0.999002695083618164
-0.183684766292572021 -0.18140082061290741 0.966102302074432373
-0.834772467613220215 0.5018463134765625 -0.226506397128105164
0.484810382127761841 0.871354639530181885 -0.0754983723163604736
0.785795390605926514 -0.170104682445526123 0.594634294509887695
-0.434926390647888184 -0.83279573917388916 0.34247666597366333
-0.147207304835319519 -0.989003002643585205 0.0142501834779977798
-0.335662275552749634 0.933052480220794678 -0.129398047924041748
0.246424883604049683 -0.663340449333190918 0.706579267978668213
0.719923198223114014 0.250774502754211426 0.647165179252624512
0.714925289154052734 -0.698805451393127441 -0.0235120691359043121
0.408634483814239502 -0.226445809006690979 0.884160697460174561
-0.460817456245422363 0.729459702968597412 0.505505502223968506
0.609581947326660156 -0.666883885860443115 -0.428574144840240479
0.349753111600875854 0.47896084189414978 0.805151700973510742
-0.751614212989807129 0.573047757148742676 -0.326637953519821167
-0.312251240015029907 0.332561373710632324 -0.88988882303237915
0.481838762760162354 0.66817861795425415 0.566893935203552246
0.289337843656539917 0.760653197765350342 -0.581111311912536621
-0.758925259113311768 -0.360653072595596313 0.542182445526123047
-0.160784631967544556 0.737802445888519287 0.655588209629058838
-0.310702800750732422 0.922875165939331055 -0.227519631385803223
0.484636485576629639 0.480546563863754272 -0.730891585350036621
0.941610038280487061 0.334479570388793945 0.0386520735919475555
0.184644594788551331 0.438555926084518433 -0.879531145095825195
-0.185758620500564575 0.463169574737548828 0.866583883762359619
0.084340997040271759 -0.644139647483825684 -0.760243833065032959
0.366794168949127197 0.578482449054718018 -0.728574037551879883
0.944855153560638428 -0.250528007745742798 -0.210913464426994324
0.5790213942527771 0.0847963541746139526 0.810890734195709229
0.435418009757995605 -0.491768419742584229 -0.754039108753204346
0.794111490249633789 0.316946953535079956 -0.518586099147796631
-0.0801344886422157288 0.994063198566436768 0.0735987424850463867
0.536648750305175781 0.788937151432037354 -0.299309760332107544
0.639763832092285156 -0.625799775123596191 0.446180343627929688
-0.364786595106124878 -0.493763238191604614 0.789384961128234863
-0.373836547136306763 0.147223100066184998 0.915735542774200439
0.757154583930969238 -0.622534871101379395 0.197907298803329468
-0.474118202924728394 -0.880016684532165527 0.0279751364141702652
-0.415838241577148438 -0.873898327350616455 -0.25175437331199646
-0.0509074442088603973 0.980636477470397949 0.189104601740837097
-0.1610451340675354 -0.651648342609405518 0.741227984428405762
0.151687011122703552 -0.205812782049179077 -0.966763734817504883
-0.811246395111083984 -0.121561631560325623 -0.57192838191986084
0.563714087009429932 0.800547540187835693 -0.203347101807594299
0.386322468519210815 -0.326622247695922852 0.862596571445465088
-0.905317187309265137 -0.00738242780789732933 -0.424672037363052368
-0.433916598558425903 0.0237270426005125046 -0.900640547275543213
0.32597622275352478 -0.933857440948486328 0.147138833999633789
0.305389463901519775 0.634621262550354004 -0.709924697875976562
0.837397158145904541 0.317112565040588379 0.445202887058258057
0.966944575309753418 -0.198729187250137329 -0.159765064716339111
-0.926259636878967285 0.324441313743591309 -0.191783666610717773
-0.264378130435943604 0.569933295249938965 0.77799755334854126
0.383619636297225952 0.75974881649017334 0.524993062019348145
-0.89842069149017334 -0.152260527014732361 -0.411894351243972778
-0.312478154897689819 0.390798777341842651 -0.865813910961151123
0.101199723780155182 -0.980353176593780518 0.169311195611953735
0.929977893829345703 0.344092458486557007 0.129388809204101562
0.232728928327560425 -0.793731689453125 -0.561985135078430176
0.934896290302276611 0.351077526807785034 0.0520917102694511414
0.470379024744033813 -0.173740744590759277 0.865192294120788574
-0.0167216360569000244 -0.837863683700561523 -0.545623302459716797
-0.827132105827331543 0.043614264577627182 -0.56031268835067749
-0.237179622054100037 -0.257427364587783813 0.936737418174743652
0.786914229393005371 -0.611025989055633545 0.0861003100872039795
0.70261847972869873 0.498479753732681274 0.507784605026245117
-0.653639674186706543 0.752169191837310791 -0.0836464166641235352
0.189372703433036804 0.899365425109863281 0.394055545330047607
-0.012485068291425705 -0.81514352560043335 0.579124510288238525
-0.223372131586074829 0.600487947463989258 -0.767801523208618164
-0.825270414352416992 -0.274207890033721924 0.493699103593826294
-0.983266115188598633 0.181612208485603333 -0.0143083250150084496
0.814661681652069092 0.195083498954772949 -0.546139836311340332
-0.403399646282196045 0.904438436031341553 -0.138779729604721069
-0.86257469654083252 0.112030483782291412 -0.493370145559310913
-0.0790417790412902832 0.204349428415298462 -0.975701630115509033
-0.993467628955841064 -0.000862525834236294031 0.114110931754112244
0.853533625602722168 -0.0539567917585372925 0.518236458301544189
-0.518796622753143311 0.823851704597473145 -0.228294461965560913
-0.0755573585629463196 0.171416521072387695 0.982297062873840332
-0.237989500164985657 -0.0830147638916969299 0.967713594436645508
0.0494187511503696442 0.74857628345489502 -0.66120445728302002
-0.652248919010162354 0.184251934289932251 0.735270380973815918
-0.506662428379058838 -0.781156301498413086 0.364812374114990234
-0.177731111645698547 -0.615197181701660156 -0.768078207969665527
0.236836031079292297 -0.654087841510772705 -0.718385517597198486
-0.653036415576934814 0.65027695894241333 0.388179510831832886
-0.124698594212532043 -0.990049898624420166 0.0652031973004341125
-0.679062187671661377 -0.268215209245681763 0.683326482772827148
-0.127275735139846802 0.515941500663757324 -0.847115874290466309
-0.943152844905853271 0.27524721622467041 0.186283737421035767
-0.360932230949401855 -0.826544463634490967 -0.431916892528533936
0.159811750054359436 -0.297465741634368896 -0.941262125968933105
-0.884805738925933838 -0.455183863639831543 0.0996315032243728638
0.118982583284378052 -0.927057147026062012 0.355539292097091675
0.622126102447509766 -0.782915055751800537 -0.00176471041049808264
-0.546079814434051514 0.231642097234725952 0.805070638656616211
0.728360891342163086 -0.0128919128328561783 -0.685072422027587891
0.504650473594665527 0.693505167961120605 -0.514177441596984863
0.856853127479553223 0.406956225633621216 0.316526979207992554
0.715322732925415039 -0.662477016448974609 -0.222345620393753052
-0.663261115550994873 -0.550414562225341797 -0.507078409194946289
0.981701493263244629 -0.187903255224227905 0.030895160511136055
-0.56065678596496582 0.503794550895690918 -0.657156765460968018
-0.687013149261474609 -0.617414653301239014 -0.383160591125488281
-0.961927533149719238 0.065021224319934845 0.265457451343536377
-0.234154358506202698 -0.354851216077804565 -0.905125617980957031
0.371012210845947266 0.879503548145294189 0.298032581806182861
0.201286241412162781 0.51167595386505127 -0.835267364978790283
0.699413418769836426 0.702841877937316895 -0.129746705293655396
-0.493710607290267944 0.747858285903930664 0.443799287080764771
0.646045088768005371 -0.761186957359313965 0.0567465238273143768
0.636534690856933594 -0.0571059025824069977 -0.769131004810333252
-0.327098280191421509 -0.120347954332828522 -0.937295615673065186
-0.882287085056304932 -0.470456451177597046 -0.0154987312853336334
0.585610866546630859 0.80298924446105957 0.110761575400829315
0.067025400698184967 0.851354062557220459 -0.520292043685913086
-0.829179942607879639 0.201903700828552246 0.521244227886199951
-0.0389837920665740967 -0.49918791651725769 0.865616381168365479
-0.960294961929321289 -0.14795723557472229 -0.236521065235137939
0.206157952547073364 -0.714866816997528076 -0.668179869651794434
0.232025057077407837 0.713261306285858154 0.661379396915435791
-0.337240904569625854 0.540657103061676025 0.770686984062194824
0.65553814172744751 0.523481786251068115 -0.544276177883148193
0.545955836772918701 0.575356066226959229 0.609013617038726807
0.178466960787773132 0.181469634175300598 0.96706688404083252
0.953943014144897461 -0.299663275480270386 -0.0139501281082630157
-0.501702666282653809 -0.695211648941040039 0.514757394790649414
0.111517220735549927 -0.199831336736679077 0.973463594913482666
0.385048002004623413 -0.689987838268280029 -0.612906873226165771
-0.859799027442932129 -0.473040223121643066 0.192298188805580139
-0.588097214698791504 0.555437743663787842 -0.58790355920791626
0.236702084541320801 0.86208498477935791 -0.44808661937713623
-0.697398006916046143 0.611798763275146484 -0.373280465602874756
-0.676659524440765381 -0.734213471412658691 0.0553390718996524811
0.424646705389022827 -0.556398510932922363 -0.714209973812103271
-0.681555092334747314 0.73176497220993042 -0.00163870002143085003
-0.16298559308052063 -0.881564855575561523 0.443033933639526367
0.954994440078735352 -0.0720492973923683167 -0.287740439176559448
0.939891338348388672 0.140994340181350708 0.31100618839263916
-0.996620357036590576 -0.00312094134278595448 -0.0820862129330635071
0.344273388385772705 -0.366455882787704468 0.864399135112762451
-0.514509677886962891 0.227859839797019958 0.826655745506286621
0.663808882236480713 -0.299604147672653198 -0.685270130634307861
-0.393798500299453735 -0.908487677574157715 0.13990311324596405
-0.0781327560544013977 -0.986530482769012451 -0.14371095597743988
-0.690842628479003906 -0.147329092025756836 0.707835137844085693
0.499999076128005981 0.0899354368448257446 -0.861343443393707275
-0.524562180042266846 -0.145164147019386292 -0.838905155658721924
0.699399709701538086 0.710821390151977539 -0.0746523737907409668
-0.486303061246871948 -0.838351786136627197 -0.246324136853218079
0.038298826664686203 -0.75735241174697876 0.651882290840148926
0.541032195091247559 0.130712121725082397 -0.830781877040863037
-0.320162594318389893 0.74584585428237915 -0.584131717681884766
0.600509822368621826 0.143594056367874146 -0.786618530750274658
0.138497740030288696 0.267860233783721924 -0.953451216220855713
-0.250597208738327026 0.861106276512145996 0.442376524209976196
-0.599934101104736328 0.791459023952484131 -0.1169261634349823
-0.06446085125207901 0.940249919891357422 -0.334327489137649536
0.849298655986785889 0.524930953979492188 -0.0560292638838291168
-0.791730880737304688 0.433317869901657104 -0.430578440427780151
0.0381098873913288116 -0.97516024112701416 -0.218197479844093323
0.9165077805519104 -0.303122252225875854 -0.261017948389053345
0.495394140481948853 -0.35825386643409729 0.791352510452270508
0.794133424758911133 0.269815891981124878 0.544565379619598389
-0.224207744002342224 -0.540177881717681885 0.811134219169616699
0.0737025514245033264 0.963974416255950928 -0.255580157041549683
-0.645181775093078613 0.450711458921432495 0.616927623748779297
0.333261460065841675 0.88747018575668335 0.318329125642776489
0.357958108186721802 -0.925118684768676758 0.126575618982315063
-0.340538382530212402 0.604961931705474854 0.719760119915008545
0.873021543025970459 -0.254294067621231079 -0.416134506464004517
0.98736339807510376 -0.149964272975921631 0.0512269213795661926
0.98908621072769165 -0.146951034665107727 -0.0106723196804523468
-0.303880900144577026 0.7897300124168396 0.532900512218475342
0.385690599679946899 0.393481075763702393 0.834515094757080078
0.251234859228134155 0.816241979598999023 0.520221173763275146
-0.133828267455101013 0.722365796566009521 -0.678437650203704834
-0.755033433437347412 -0.647131979465484619 0.105568692088127136
-0.731191694736480713 0.424924910068511963 -0.533664286136627197
-0.498487204313278198 -0.461806565523147583 -0.733651936054229736
-0.103191383183002472 0.0322335511445999146 -0.99413907527923584
-0.716794312000274658 -0.579448282718658447 -0.387873232364654541
0.570979595184326172 -0.264813810586929321 0.777081727981567383
-0.764634191989898682 -0.311790972948074341 -0.56402212381362915
0.0255897026509046555 -0.945064365863800049 0.32588118314743042
-0.657681107521057129 0.745767712593078613 0.106236018240451813
-0.307673454284667969 -0.562012314796447754 0.767775475978851318
-0.302264273166656494 -0.392753064632415771 -0.868551254272460938
-0.234733864665031433 -0.50312650203704834 -0.831723392009735107
-0.196145594120025635 -0.430522948503494263 0.881009042263031006
-0.733183622360229492 -0.00454540317878127098 -0.680015504360198975
-0.774596869945526123 0.577813804149627686 0.257159382104873657
0.142004981637001038 -0.0395116657018661499 0.98907703161239624
-0.563094258308410645 -0.00728333136066794395 -0.826360583305358887
0.6088714599609375 0.793223857879638672 -0.00845282245427370071
-0.427323609590530396 -0.789129018783569336 0.441214144229888916
-0.480024039745330811 -0.820743799209594727 0.309768557548522949
-0.053934004157781601 -0.894939601421356201 0.442915648221969604
0.366764277219772339 -0.901527523994445801 0.229634642601013184
0.193590670824050903 -0.23144376277923584 -0.953392088413238525
-0.463069170713424683 0.875094473361968994 0.14062952995300293
-0.701444923877716064 0.350159376859664917 0.620776474475860596
-0.493222892284393311 -0.234818831086158752 0.837610483169555664
0.103168413043022156 0.246531739830970764 0.96362769603729248
0.0542600303888320923 0.996436476707458496 -0.0645767971873283386
-0.266454249620437622 0.0676678940653800964 0.961469292640686035
-0.687055528163909912 -0.293111354112625122 0.664861202239990234
-0.762512922286987305 -0.303324967622756958 0.571461319923400879
-0.843267202377319336 -0.37493404746055603 0.385129690170288086
0.068450242280960083 0.171956717967987061 0.982723474502563477
0.652022063732147217 0.0490594692528247833 -0.756611108779907227
0.382055759429931641 0.738686025142669678 0.555316388607025146
0.732766628265380859 -0.335391193628311157 -0.592085957527160645
-0.597534537315368652 0.710764467716217041 0.371168911457061768
0.567797303199768066 -0.620523810386657715 0.540884912014007568
-0.761592984199523926 -0.591658949851989746 -0.264416038990020752
-0.624712586402893066 -0.350524932146072388 -0.697758197784423828
0.939841687679290771 0.0140035375952720642 -0.341323196887969971
0.687492787837982178 0.136009708046913147 0.71334075927734375
0.469159692525863647 -0.00835544709116220474 0.883073806762695312
0.862823069095611572 0.25571131706237793 -0.436059743165969849
-0.469230890274047852 0.881502807140350342 -0.0526796281337738037
-0.660428762435913086 -0.453035265207290649 -0.598826289176940918
0.634078145027160645 -0.645513534545898438 0.42574310302734375
-0.824138164520263672 0.54166179895401001 0.165525585412979126
0.719772934913635254 -0.183591336011886597 0.669493257999420166
-0.0114242183044552803 0.064817085862159729 -0.997831761837005615
-0.383248299360275269 -0.191117584705352783 -0.903656363487243652
-0.170981466770172119 0.431461811065673828 0.885779917240142822
0.293530583381652832 -0.949089467525482178 0.114319354295730591
-0.553195774555206299 -0.800174534320831299 -0.231722250580787659
0.354523807764053345 -0.567332923412322998 0.743267238140106201
0.706022500991821289 0.638720571994781494 -0.305889368057250977
-0.0746770426630973816 -0.320355206727981567 -0.944349467754364014
0.482043653726577759 -0.822603046894073486 -0.301592707633972168
0.235665589570999146 -0.588916897773742676 -0.773070871829986572
-0.176046073436737061 0.951121926307678223 0.25372198224067688
0.0926317870616912842 0.881892204284667969 0.46226125955581665
0.697149157524108887 -0.670731604099273682 0.25318416953086853
0.369326561689376831 -0.923987150192260742 -0.0992252975702285767
0.975005269050598145 0.221692442893981934 0.0147364204749464989
-0.690665185451507568 0.103853292763233185 -0.715678751468658447
0.834298491477966309 -0.114469096064567566 -0.539298474788665771
-0.909662365913391113 -0.184118494391441345 0.372310012578964233
-0.761774420738220215 0.277151942253112793 -0.585565149784088135
0.868582248687744141 0.495200514793395996 -0.0184759236872196198
0.794103443622589111 -0.443500548601150513 0.41558036208152771
-0.0884306877851486206 -0.90219646692276001 -0.422162950038909912
0.0362912490963935852 -0.693602502346038818 0.719443202018737793
-0.992802739143371582 0.0789642706513404846 -0.0900406315922737122
0.601160705089569092 -0.722617983818054199 -0.341217070817947388
0.698312520980834961 0.480296909809112549 -0.530730128288269043
-0.28687712550163269 -0.757513046264648438 -0.58640897274017334
0.17857930064201355 0.342705845832824707 -0.922313451766967773
-0.296333253383636475 -0.954454123973846436 -0.0346972793340682983
0.0125501304864883423 0.179061651229858398 -0.98375779390335083
0.675857245922088623 -0.521368980407714844 0.520952403545379639
-0.473864287137985229 0.644021093845367432 -0.600574254989624023
-0.268039822578430176 -0.676603376865386963 0.685829758644104004
0.471561402082443237 0.0434155985713005066 -0.880763828754425049
0.916813015937805176 -0.386958539485931396 -0.0985748320817947388
-0.707332849502563477 -0.432345777750015259 0.559247076511383057
0.0172409452497959137 0.999643266201019287 0.0203976910561323166
0.700288116931915283 0.712279558181762695 0.0474805682897567749
0.776087701320648193 -0.170626476407051086 0.607103347778320312
-0.531702756881713867 -0.799816370010375977 -0.278542548418045044
-0.00413226243108510971 0.72256094217300415 0.691294848918914795
-0.0477540343999862671 -0.781432807445526123 -0.622159421443939209
-0.399177402257919312 0.303225070238113403 -0.865281403064727783
-0.65279000997543335 0.397602975368499756 -0.644807755947113037
0.214277744293212891 0.599942386150360107 0.770814001560211182
0.740007102489471436 -0.543895065784454346 -0.395686239004135132
0.389551937580108643 0.204026594758033752 -0.89812159538269043
0.0961505472660064697 0.987845301628112793 -0.122134290635585785
0.810444414615631104 -0.552512824535369873 -0.194703564047813416
-0.802087485790252686 -0.490748137235641479 -0.340326160192489624
0.442455023527145386 -0.886366188526153564 -0.136339947581291199
0.000903919630218297243 0.510676383972167969 -0.859772562980651855
-0.296585679054260254 -0.858948469161987305 0.417426019906997681
0.0521429702639579773 0.127084508538246155 -0.990520358085632324
-0.809574663639068604 0.527797460556030273 0.256941109895706177
0.578447878360748291 0.58107680082321167 -0.572492659091949463
-0.730053067207336426 -0.0801329314708709717 0.678676068782806396
-0.876171231269836426 0.479623138904571533 0.0478085540235042572
0.569233119487762451 0.289961874485015869 0.769347608089447021
-0.988815605640411377 -0.00426693912595510483 0.149081990122795105
0.621631085872650146 -0.64807504415512085 -0.439969927072525024
-0.0563219636678695679 -0.924339532852172852 0.377391427755355835
-0.875337779521942139 -0.478432238101959229 0.0699025541543960571
-0.304509460926055908 -0.141202181577682495 0.941985130310058594
0.796123981475830078 -0.0364354848861694336 0.604035615921020508
0.308292627334594727 0.904574453830718994 -0.294449776411056519
0.382854729890823364 -0.902360141277313232 0.197910144925117493
-0.0660145878791809082 -0.986002266407012939 -0.153106540441513062
-0.440691143274307251 -0.108570978045463562 0.891068816184997559
0.299501508474349976 0.36522260308265686 0.881425738334655762
-0.381867110729217529 -0.0416366718709468842 0.923278868198394775
-0.0342722982168197632 0.998229086399078369 -0.0486224330961704254
-0.329595059156417847 0.465936720371246338 0.821139514446258545
-0.981098651885986328 -0.0782857313752174377 0.176965400576591492
-0.041164591908454895 -0.89154428243637085 0.451059073209762573
0.2015114426612854 0.953805088996887207 -0.222820505499839783
-0.942436337471008301 -0.268580228090286255 -0.199194297194480896
-0.509243190288543701 0.852625191211700439 -0.117054127156734467
-0.968642294406890869 -0.0814694464206695557 -0.234722808003425598
-0.646537303924560547 -0.712715268135070801 -0.272078096866607666
0.455983340740203857 -0.275388449430465698 0.846309840679168701
0.419149190187454224 0.188809677958488464 0.888068020343780518
-0.351832598447799683 0.525027751922607422 0.774957835674285889
0.0839802175760269165 0.181091293692588806 0.979874134063720703
-0.357126355171203613 0.933917403221130371 0.0160945896059274673
-0.0822916030883789062 0.922633826732635498 0.376795649528503418
0.478937357664108276 -0.872648239135742188 0.0954149961471557617
0.861272096633911133 0.180970832705497742 0.474826186895370483
0.259326785802841187 0.642280042171478271 0.72126692533493042
-0.708713650703430176 -0.668231368064880371 0.226255953311920166
-0.701774775981903076 0.702649950981140137 0.117453023791313171
0.851788997650146484 0.517956316471099854 -0.0785922929644584656
-0.435615688562393188 0.896082639694213867 0.0852928608655929565
0.939385056495666504 -0.0964487716555595398 0.32901880145072937
-0.648467838764190674 0.658716261386871338 -0.381552547216415405
-0.659479856491088867 -0.262010365724563599 -0.704582750797271729
0.462744951248168945 0.214019671082496643 0.860268950462341309
-0.874585866928100586 0.167045176029205322 0.455187231302261353
0.452894985675811768 -0.890917003154754639 0.0339567698538303375
0.976126313209533691 0.122132860124111176 0.179613500833511353
0.588800966739654541 0.0555990897119045258 -0.806363523006439209
-0.153889119625091553 -0.0513145811855792999 -0.986754775047302246
0.0525966696441173553 -0.614857316017150879 0.786882460117340088
0.288454562425613403 -0.60096508264541626 -0.745409190654754639
0.187224835157394409 -0.158315345644950867 0.969475686550140381
-0.857197046279907227 0.392079293727874756 0.333896756172180176
0.247702464461326599 -0.414698690176010132 0.875596046447753906
-0.764677047729492188 0.352043479681015015 0.539754033088684082
0.804942786693572998 0.437579751014709473 0.400738179683685303
-0.865796327590942383 0.471440613269805908 0.167751222848892212
0.540790259838104248 0.530325829982757568 -0.652916848659515381
-0.728025615215301514 -0.682444930076599121 -0.0651740133762359619
-0.524142026901245117 0.305407345294952393 -0.79498523473739624
0.0770903974771499634 -0.783486425876617432 -0.616608560085296631
-0.110205084085464478 0.602550804615020752 0.790434956550598145
-0.872936010360717773 -0.0225092470645904541 0.487315118312835693
-0.348249316215515137 -0.758749067783355713 -0.550474584102630615
0.492792844772338867 -0.772632598876953125 -0.400242507457733154
-0.625148415565490723 0.103172577917575836 -0.773656845092773438
-0.314488887786865234 0.660101115703582764 -0.682175397872924805
0.517038881778717041 -0.344401776790618896 -0.783618688583374023
-0.960765600204467773 0.217249169945716858 -0.172430336475372314
0.338213562965393066 -0.655435085296630859 -0.67528986930847168
0.0491103678941726685 -0.392712593078613281 -0.918349087238311768
0.55358046293258667 0.22316230833530426 0.802338600158691406
0.325182318687438965 -0.849565863609313965 0.415324389934539795
0.912816166877746582 0.247847989201545715 0.32455819845199585
-0.563839256763458252 0.52425229549407959 0.638157367706298828
0.821010112762451172 -0.569386601448059082 0.0417286939918994904
-0.193032324314117432 0.540939748287200928 -0.818610250949859619
0.80214005708694458 -0.148245260119438171 -0.5784415602684021
-0.220670253038406372 0.714170515537261963 0.664277911186218262
-0.109575726091861725 -0.99355316162109375 0.0290741045027971268
-0.282091110944747925 0.338472217321395874 -0.897697687149047852
-0.814972221851348877 -0.559714674949645996 0.150132432579994202
0.604526817798614502 -0.515331268310546875 0.607438087463378906
-0.921826601028442383 -0.239097133278846741 0.305070877075195312
-0.857877135276794434 -0.33332669734954834 -0.391075640916824341
-0.00179209548514336348 -0.997904658317565918 -0.0646769702434539795
0.262842267751693726 0.439041852951049805 0.859160184860229492
0.949474453926086426 -0.196466356515884399 -0.244743227958679199
-0.736017286777496338 -0.674070656299591064 -0.0625078529119491577
-0.405289053916931152 -0.86526334285736084 -0.295059472322463989
0.41013103723526001 0.657211661338806152 -0.632349073886871338
-0.114728502929210663 0.503637433052062988 -0.856263220310211182
0.601519107818603516 0.122804500162601471 -0.789362907409667969
-0.304752707481384277 0.29146537184715271 -0.906737983226776123
0.425093352794647217 0.793492317199707031 -0.435506165027618408
0.0698694959282875061 -0.485201478004455566 0.871606409549713135
0.47665560245513916 0.455433100461959839 -0.751917660236358643
-0.100653499364852905 -0.892130255699157715 -0.440423011779785156
0.620198428630828857 0.721140921115875244 0.308722734451293945
-0.569168627262115479 -0.611843407154083252 -0.549267470836639404
0.867811501026153564 0.4952869713306427 -0.0399255193769931793
0.925512015819549561 -0.263998627662658691 0.271536886692047119
